x,y,z,intensity,inputLabIndex,spotRadius2D,spotRadius3D,spheroidCenter_1,spheroidCenter_2,spheroidCenter_3,contourDist,contourDistUnit,imageId
448,974,32,19725,170,13.2574507353412,16.6060230037177,450,964,33,13.89244,18.06018,788
449,966,32,21473,170,2.90688837074973,10.4139329746259,450,964,33,20.61553,26.80019,788
451,974,32,17640,170,13.0648383074572,16.4526593595078,450,964,33,12.52996,16.28895,788
473,965,32,7846,170,29.9282475263755,31.5547143862847,450,964,33,6.708204,8.720665,788
77,620,33,11225,106,16.6481230173254,19.4206076115038,87,612,34,3.162278,4.110961,788
97,609,33,11876,106,13.5723984615837,16.8585289986997,87,612,34,7.071068,9.192389,788
430,965,33,6861,170,26.032479712851,26.032479712851,450,964,33,6.708204,8.720665,788
431,957,33,13614,170,26.3229937507116,26.3229937507116,450,964,33,4,5.2,788
434,952,33,10596,170,26,26,450,964,33,7.28011,9.464143,788
440,946,33,16824,170,26.7686383665662,26.7686383665662,450,964,33,5.385165,7.000714,788
441,985,33,22421,170,29.7015151128692,29.7015151128692,450,964,33,5.385165,7.000714,788
442,958,33,17636,170,13,13,450,964,33,15,19.5,788
447,975,33,21373,170,14.8222805262888,14.8222805262888,450,964,33,13.60147,17.68191,788
448,938,33,9977,170,33.8998525070538,33.8998525070538,450,964,33,5,6.5,788
448,986,33,13879,170,28.7179386446869,28.7179386446869,450,964,33,5.385165,7.000714,788
451,966,33,18532,170,2.90688837074973,2.90688837074973,450,964,33,19.92486,25.90232,788
458,943,33,7442,170,29.2138665705175,29.2138665705175,450,964,33,4.24264,5.515433,788
463,957,33,12997,170,19.1942699783034,19.1942699783034,450,964,33,10.29563,13.38432,788
468,983,33,10019,170,34.0242560535862,34.0242560535862,450,964,33,5,6.5,788
469,979,33,13061,170,31.4696679359665,31.4696679359665,450,964,33,7.28011,9.464143,788
469,986,33,8253,170,37.7895488197465,37.7895488197465,450,964,33,3.605551,4.687217,788
97,623,34,7503,106,19.3258893715141,19.3258893715141,87,612,34,3,3.9,788
435,980,34,12325,170,28.5112258592997,30.2140695703177,450,964,33,6.082763,7.907591,788
448,962,34,14060,170,3.67695526217005,10.6545764814938,450,964,33,21.2132,27.57716,788
473,977,34,9517,170,34.3455965154196,35.7717765843409,450,964,33,5,6.5,788
75,614,35,10611,106,15.8151825787754,18.7114937939225,87,612,34,4.24264,5.515433,788
85,611,35,7832,106,2.90688837074973,10.4139329746259,87,612,34,11.40175,14.82228,788
87,614,35,8445,106,2.6,10.3324730824716,87,612,34,13.45362,17.48971,788
456,950,35,6833,170,19.8010100752462,28.1439158611591,450,964,33,10.81665,14.06165,788
613,745,38,10580,134,16.9499262535269,26.2164070764855,602,752,40,11.31371,14.70782,788
517,771,39,5765,139,7.35391052434009,21.3091529629875,513,775,41,13.60147,17.68191,788
594,735,39,12048,134,24.4247824964727,26.392612602772,602,752,40,3.605551,4.687217,788
599,753,39,16907,134,4.11096095821889,10.8120303366204,602,752,40,20.12461,26.16199,788
601,730,39,8313,134,28.6295302092088,30.3257316482224,602,752,40,3.605551,4.687217,788
606,740,39,6828,134,16.4438438328756,19.2457787579511,602,752,40,10.63015,13.81919,788
606,766,39,15740,134,18.9282857121293,21.4074753298935,602,752,40,8.246211,10.72007,788
617,766,39,12452,134,26.6737698872882,28.4866635462983,602,752,40,6.403124,8.324061,788
581,753,40,6391,134,27.3309348541172,27.3309348541172,602,752,40,3.162278,4.110961,788
596,773,40,5662,134,28.392428568194,28.392428568194,602,752,40,2.828427,3.676955,788
615,771,40,12361,134,29.9282475263755,29.9282475263755,602,752,40,4.24264,5.515433,788
617,763,40,11459,134,24.1813978090598,24.1813978090598,602,752,40,8.062258,10.48094,788
520,783,41,7810,139,13.819189556555,13.819189556555,513,775,41,10,13,788
593,746,41,6196,134,14.0616499743096,17.2548543894175,602,752,40,14.03567,18.24637,788
593,759,41,11174,134,14.8222805262888,17.8801565988668,602,752,40,12.08305,15.70796,788
606,740,41,5084,134,16.4438438328756,19.2457787579511,602,752,40,10.63015,13.81919,788
615,760,41,9533,134,19.8436387792159,22.2209360738921,602,752,40,11.40175,14.82228,788
616,761,42,6066,134,21.6363120702212,29.4640458864698,602,752,40,10,13,788
2,542,43,11416,0,0,0,0,0,0,0,0,788
11,550,43,7699,0,0,0,0,0,0,0,0,788
371,706,43,8764,124,7.35391052434009,7.35391052434009,367,702,43,6,7.8,788
605,750,43,5417,134,4.68721665810319,30.363958898668,602,752,40,19.23538,25.006,788
599,982,45,9744,176,17.4897112611958,17.4897112611958,608,992,45,8.544003,11.1072,788
197,992,47,6973,177,14.5344418537486,14.5344418537486,199,981,47,3.605551,4.687217,788
412,589,48,14145,101,13.3843191832831,16.7074833532762,417,580,49,5,6.5,788
183,671,49,7273,117,5.36003731330296,5.36003731330296,179,670,49,4.123106,5.360037,788
410,580,49,17049,101,9.1,9.1,417,580,49,5.830952,7.580237,788
413,590,49,12320,101,14.0014284985497,14.0014284985497,417,580,49,6,7.8,788
140,853,62,14118,158,7.90759128938769,7.90759128938769,146,854,62,4.123106,5.360037,788
110,759,66,13942,137,1.83847763108502,10.167595585978,109,758,67,8.246211,10.72007,788
112,749,67,6763,137,12.3328828746567,12.3328828746567,109,758,67,2.236068,2.906888,788
369,1024,68,5015,182,6.5,11.9268604418766,369,1029,67,5,6.5,788
83,680,77,4960,118,2.90688837074973,2.90688837074973,82,682,77,9.899495,12.86934,788
163,892,77,9895,165,12.2641754716736,15.8243483278143,155,897,78,2,2.6,788
152,895,78,8009,165,4.68721665810319,4.68721665810319,155,897,78,8,10.4,788
579,822,79,7804,153,4.68721665810319,11.0440028975005,576,820,80,7.615773,9.900505,788
1251,588,7,12813,0,0,0,0,0,0,0,0,788
928,864,15,15985,160,8.22192191643779,12.9460418661458,926,870,16,5.830952,7.580237,788
732,839,16,10773,155,7.35391052434009,12.4128965193463,728,843,17,12.36932,16.08011,788
916,865,16,9322,160,14.5344418537486,14.5344418537486,926,870,16,3.162278,4.110961,788
925,878,16,16117,160,10.4809350727881,10.4809350727881,926,870,16,5,6.5,788
928,866,16,17041,160,5.81377674149945,5.81377674149945,926,870,16,7.615773,9.900505,788
717,837,17,7228,155,16.2889533119842,16.2889533119842,728,843,17,8,10.4,788
743,840,17,8317,155,19.8861761030119,19.8861761030119,728,843,17,6,7.8,788
732,854,18,13305,155,15.2161098839355,18.2079652899493,728,843,17,6.708204,8.720665,788
882,665,25,12195,114,9.19238815542512,13.5830777072061,887,660,26,3.605551,4.687217,788
641,1037,28,7668,183,6.62872536767062,6.62872536767062,640,1032,28,4.472136,5.813777,788
911,942,28,8120,169,5.36003731330296,5.36003731330296,915,941,28,10,13,788
918,937,28,15683,169,6.5,6.5,915,941,28,10,13,788
773,618,32,8688,105,13.0648383074572,16.4526593595078,774,608,33,3,3.9,788
767,610,33,11620,105,9.46414285606467,9.46414285606467,774,608,33,4.123106,5.360037,788
774,619,33,10081,105,14.3,14.3,774,608,33,2.236068,2.906888,788
794,822,37,11668,154,8.22192191643779,8.22192191643779,800,824,37,5.830952,7.580237,788
803,816,37,8599,154,11.1072048689128,11.1072048689128,800,824,37,5.385165,7.000714,788
806,831,37,6560,154,11.9854077944808,11.9854077944808,800,824,37,5,6.5,788
980,530,37,7249,96,19.1942699783034,21.6430127292852,973,543,38,5.830952,7.580237,788
974,555,38,19596,96,15.65407295243,15.65407295243,973,543,38,3.605551,4.687217,788
985,540,39,7997,96,16.0801119399089,18.9359446556014,973,543,38,5.830952,7.580237,788
851,728,50,6601,127,9.37443331620637,13.7069325525444,857,732,49,11,14.3,788
862,733,50,5844,127,6.62872536767062,11.9974997395291,857,732,49,11.18034,14.53444,788
871,740,50,6259,127,20.9618701455762,23.2249865446678,857,732,49,5.09902,6.628726,788
873,742,50,6352,127,24.5283509433472,26.4884880655729,857,732,49,3,3.9,788
1125,1047,52,16298,0,0,0,0,0,0,0,0,788
1108,1039,53,8236,0,0,0,0,0,0,0,0,788
1120,1035,53,11583,0,0,0,0,0,0,0,0,788
1129,1036,53,20716,0,0,0,0,0,0,0,0,788
1119,1039,54,16067,0,0,0,0,0,0,0,0,788
992,918,55,13776,163,22.0617315730203,45.6806304685038,1004,906,59,24.83949,32.29133,788
1000,916,55,16717,163,14.0014284985497,42.3797121273847,1004,906,59,25,32.5,788
800,734,56,6383,129,15.8151825787754,15.8151825787754,798,722,56,3,3.9,788
983,926,56,12661,163,37.7,48.1797675378369,1004,906,59,12.80625,16.64812,788
991,917,56,16731,163,22.1382022757043,37.2840448449467,1004,906,59,24,31.2,788
996,909,56,17892,163,11.1072048689128,31.9901547354807,1004,906,59,23.32381,30.32095,788
998,891,56,16930,163,21.0021427478246,36.6208956744643,1004,906,59,11.31371,14.70782,788
998,931,56,14474,163,33.4228963436743,44.912025115775,1004,906,59,12.16553,15.81518,788
1005,938,56,11380,163,41.6203075433135,51.3054577993414,1004,906,59,3.605551,4.687217,788
1009,913,56,22971,163,11.1830228471554,32.0165582160232,1004,906,59,21.18962,27.54651,788
1010,923,56,23506,163,23.4360832905159,38.0690162730796,1004,906,59,13.92839,18.1069,788
1016,902,56,14463,163,16.4438438328756,34.2111093067734,1004,906,59,17.72005,23.03606,788
978,927,57,15846,163,43.4480149143779,47.8302205723536,1004,906,59,8.485281,11.03087,788
982,918,57,17594,163,32.5779066239683,38.2272154361261,1004,906,59,15,19.5,788
984,906,57,13832,163,26,32.8024389337135,1004,906,59,12.04159,15.65407,788
986,927,57,14794,163,35.9562233834423,41.1442584086771,1004,906,59,14.76482,19.19427,788
986,938,57,5863,163,47.7296553517831,51.7505555525735,1004,906,59,5.385165,7.000714,788
992,918,57,18148,163,22.0617315730203,29.7778441126956,1004,906,59,24.83949,32.29133,788
994,893,57,13452,163,21.3215853069137,29.2337134144809,1004,906,59,10.63015,13.81919,788
1000,915,57,19985,163,12.8035151423349,23.7472103624826,1004,906,59,25.80698,33.54907,788
1018,915,57,18417,163,21.6363120702212,29.4640458864698,1004,906,59,12.08305,15.70796,788
1021,925,57,21413,163,33.1436268383531,38.7104637016918,1004,906,59,6.708204,8.720665,788
1032,914,57,7893,163,37.8565714242587,42.8149506597871,1004,906,59,1.414214,1.838478,788
1086,1045,57,12992,0,0,0,0,0,0,0,0,788
1096,1041,57,9199,0,0,0,0,0,0,0,0,788
1096,1047,57,10982,0,0,0,0,0,0,0,0,788
1104,1027,57,8526,0,0,0,0,0,0,0,0,788
985,925,58,14508,163,34.9310749906154,36.3342813331983,1004,906,59,15,19.5,788
996,939,58,8340,163,44.1426098005091,45.2611312275776,1004,906,59,5,6.5,788
1007,902,58,19612,163,6.5,11.9268604418766,1004,906,59,24.73863,32.16022,788
1025,914,58,16191,163,29.2138665705175,30.8779856855981,1004,906,59,6.403124,8.324061,788
1029,898,58,10091,163,34.1234523458574,35.5585432772491,1004,906,59,7.615773,9.900505,788
1033,913,58,11992,163,38.7827281144584,40.0512172099675,1004,906,59,1,1.3,788
1084,1039,58,13816,0,0,0,0,0,0,0,0,788
1092,1023,58,16123,0,0,0,0,0,0,0,0,788
1094,1019,58,15369,0,0,0,0,0,0,0,0,788
1101,1019,58,20040,0,0,0,0,0,0,0,0,788
1114,1025,58,13761,0,0,0,0,0,0,0,0,788
986,897,59,9310,163,26.1619953367475,26.1619953367475,1004,906,59,9.848858,12.80352,788
987,937,59,8255,163,45.9619407771256,45.9619407771256,1004,906,59,6.708204,8.720665,788
993,894,59,12862,163,21.1624667749296,21.1624667749296,1004,906,59,10.81665,14.06165,788
1002,886,59,10191,163,26.1296766149143,26.1296766149143,1004,906,59,8.062258,10.48094,788
1009,938,59,12001,163,42.1047503258243,42.1047503258243,1004,906,59,3,3.9,788
1032,914,59,11449,163,37.8565714242587,37.8565714242587,1004,906,59,1.414214,1.838478,788
1084,1026,59,8050,0,0,0,0,0,0,0,0,788
1086,1036,59,15513,0,0,0,0,0,0,0,0,788
1092,1034,59,15178,0,0,0,0,0,0,0,0,788
1100,1010,59,13990,0,0,0,0,0,0,0,0,788
1103,1013,59,16289,0,0,0,0,0,0,0,0,788
1120,1019,59,9078,0,0,0,0,0,0,0,0,788
1085,1038,60,11890,0,0,0,0,0,0,0,0,788
1104,1028,60,9654,0,0,0,0,0,0,0,0,788
1114,1025,60,12620,0,0,0,0,0,0,0,0,788
668,605,65,11122,100,35.4830945662861,46.4655786577548,692,592,68,5.830952,7.580237,788
812,626,65,16128,102,35.1240658238764,40.4190549122564,829,605,67,8,10.4,788
816,614,65,18456,102,20.5548047910945,28.6792607994,829,605,67,16.27882,21.16247,788
821,603,65,19368,102,10.7200746266059,22.6918487567673,829,605,67,24.35159,31.65707,788
823,620,65,15592,102,21.0021427478246,29.0015516826255,829,605,67,18,23.4,788
824,593,65,27529,102,16.9,26.1841555143564,829,605,67,22.36068,29.06888,788
830,596,65,14331,102,11.7720006795786,23.2073264293843,829,605,67,27.51363,35.76772,788
832,576,65,11234,102,37.9011873164945,42.8544046744322,829,605,67,8,10.4,788
835,621,65,14926,102,22.2144097378256,29.8911358098015,829,605,67,18.11077,23.544,788
837,612,65,18369,102,13.819189556555,24.3098745369037,829,605,67,23.02173,29.92825,788
838,577,65,11397,102,38.2341470416171,43.149159899122,829,605,67,7.071068,9.192389,788
841,629,65,13461,102,34.8826604489967,40.2094516252087,829,605,67,9.055386,11.772,788
842,587,65,16692,102,28.8646843045269,35.1165203287569,829,605,67,13.0384,16.94993,788
673,590,66,9231,100,24.8364651269056,31.8880855493082,692,592,68,8.944272,11.62755,788
692,582,66,9585,100,13,23.8537208837531,692,592,68,10.29563,13.38432,788
806,591,66,14094,102,35.0035712463743,36.4039832985348,829,605,67,7.615773,9.900505,788
811,596,66,16093,102,26.1619953367475,28.0080345615325,829,605,67,13.0384,16.94993,788
813,583,66,11405,102,35.3638233227122,36.7505102005401,829,605,67,8.062258,10.48094,788
827,613,66,31968,102,10.7200746266059,14.6601500674447,829,605,67,25,32.5,788
830,616,66,32254,102,14.3589693223434,17.4979998857012,829,605,67,22.2036,28.86469,788
839,600,66,13071,102,14.5344418537486,17.6422787643774,829,605,67,22.09072,28.71794,788
841,584,66,18395,102,31.4428052183643,32.9946965435356,829,605,67,12.64911,16.44384,788
845,594,66,21996,102,25.2414341906319,27.1501381211956,829,605,67,15.52417,20.18143,788
854,603,66,19836,102,32.6038341303596,34.1029324252329,829,605,67,7,9.1,788
1033,634,66,6591,110,26.1619953367475,28.0080345615325,1051,643,67,3.605551,4.687217,788
1048,633,66,10293,110,13.5723984615837,16.8585289986997,1051,643,67,9.486833,12.33288,788
1069,763,66,15036,141,7.90759128938769,7.90759128938769,1075,764,66,4,5.2,788
664,591,67,12037,100,36.4232068879169,37.7710206375205,692,592,68,2.828427,3.676955,788
684,591,67,10096,100,10.4809350727881,14.4862003299692,692,592,68,12.08305,15.70796,788
691,564,67,15430,100,36.4232068879169,37.7710206375205,692,592,68,7.615773,9.900505,788
691,583,67,9188,100,11.7720006795786,15.4460350899511,692,592,68,10,13,788
693,614,67,11907,100,28.6295302092088,30.3257316482224,692,592,68,12,15.6,788
708,583,67,9632,100,23.8648276758916,25.8752777762868,692,592,68,12.16553,15.81518,788
813,605,67,10604,102,20.8,20.8,829,605,67,17.26268,22.44148,788
815,635,67,11335,102,43.0376579288418,43.0376579288418,829,605,67,4,5.2,788
819,576,67,8682,102,39.8784402904627,39.8784402904627,829,605,67,6.082763,7.907591,788
835,621,67,19780,102,22.2144097378256,22.2144097378256,829,605,67,18.11077,23.544,788
842,628,67,17676,102,34.3455965154196,34.3455965154196,829,605,67,10,13,788
846,595,67,17190,102,25.6400078003108,25.6400078003108,829,605,67,14.86607,19.32589,788
849,592,67,12392,102,31.0098371488791,31.0098371488791,829,605,67,11.18034,14.53444,788
856,614,67,11209,102,36.99864862397,36.99864862397,829,605,67,4,5.2,788
1065,640,67,8605,110,18.6131673822593,18.6131673822593,1051,643,67,5.385165,7.000714,788
1066,643,67,8609,110,19.5,19.5,1051,643,67,5.09902,6.628726,788
688,620,68,15160,100,36.7695526217005,36.7695526217005,692,592,68,5.385165,7.000714,788
690,620,68,14992,100,36.4927390038073,36.4927390038073,692,592,68,6,7.8,788
707,584,68,8933,100,22.1,22.1,692,592,68,13.0384,16.94993,788
811,596,68,14012,102,26.1619953367475,28.0080345615325,829,605,67,13.0384,16.94993,788
812,604,68,10228,102,22.1382022757043,24.2919739831904,829,605,67,16.12452,20.96187,788
822,603,68,10917,102,9.46414285606467,13.7684421776757,829,605,67,25.29822,32.88769,788
823,620,68,9664,102,21.0021427478246,23.2613413198809,829,605,67,18,23.4,788
826,594,68,17779,102,14.8222805262888,17.8801565988668,829,605,67,24.59675,31.97577,788
830,629,68,10520,102,31.2270715886072,32.7891750429925,829,605,67,9.486833,12.33288,788
831,616,68,16382,102,14.5344418537486,17.6422787643774,829,605,67,22.36068,29.06888,788
835,576,68,9097,102,38.4984415268982,39.7759977876106,829,605,67,7.071068,9.192389,788
836,578,68,11163,102,36.2604467705515,37.6140931035164,829,605,67,8.544003,11.1072,788
838,600,68,11782,102,13.3843191832831,16.7074833532762,829,605,67,23.08679,30.01283,788
857,586,68,7896,102,43.9892032207904,45.1115284600289,829,605,67,2.828427,3.676955,788
855,585,69,6552,102,42.6431706138275,47.1003184702609,829,605,67,4.123106,5.360037,788
1046,919,73,7338,167,10.1533245786787,14.2509648796143,1052,924,74,9.055386,11.772,788
1047,931,73,12803,167,11.1830228471554,15.0019998666844,1052,924,74,12.04159,15.65407,788
1060,912,73,8093,167,18.7488666324127,21.2489999764695,1052,924,74,5,6.5,788
1124,862,76,9393,156,16.2889533119842,16.2889533119842,1135,856,76,3,3.9,788
1130,866,76,14798,156,14.5344418537486,14.5344418537486,1135,856,76,5,6.5,788
1139,862,76,14891,156,9.37443331620637,9.37443331620637,1135,856,76,7.071068,9.192389,788
1145,869,77,30457,0,0,0,0,0,0,0,0,788
677,1021,78,10007,181,5.81377674149945,5.81377674149945,675,1025,78,5.830952,7.580237,788
1150,717,81,7124,128,15.2161098839355,15.2161098839355,1139,721,81,4,5.2,788
1217,557,81,10136,97,13,16.4012194668567,1223,549,82,6.403124,8.324061,788
746,671,82,6275,120,22.1382022757043,22.1382022757043,747,688,82,3.605551,4.687217,788
1229,539,82,8216,97,15.1604749265978,15.1604749265978,1223,549,82,5,6.5,788
1221,555,83,10422,97,8.22192191643779,12.9460418661458,1223,549,82,10.19804,13.25745,788
613,375,32,32936,30,30.3488055778148,36.3462515261203,597,358,34,11,14.3,789
616,361,32,20178,30,25.0059992801727,32.0203060572506,597,358,34,12,15.6,789
569,369,33,65535,30,39.1081832868774,40.3664464623776,597,358,34,2.236068,2.906888,789
578,361,33,29515,30,25.0059992801727,26.9313943196412,597,358,34,13.0384,16.94993,789
582,343,33,19435,30,27.5771644662754,29.3342802877453,597,358,34,12.36932,16.08011,789
583,373,33,29305,30,26.6737698872882,28.4866635462983,597,358,34,10.29563,13.38432,789
588,328,33,22469,30,40.7171953847511,41.9271988093648,597,358,34,7,9.1,789
589,383,33,23685,30,34.1234523458574,35.5585432772491,597,358,34,5.830952,7.580237,789
598,389,33,22975,30,40.3209622901041,41.5425083498818,597,358,34,3.605551,4.687217,789
602,391,33,18725,30,43.3896300975245,44.527070417893,597,358,34,2,2.6,789
615,387,33,15915,30,44.3717252312776,45.4846127827862,597,358,34,1.414214,1.838478,789
590,363,34,28806,30,11.1830228471554,11.1830228471554,597,358,34,22.02271,28.62953,789
601,326,34,21944,30,41.9237402911525,41.9237402911525,597,358,34,5,6.5,789
612,333,35,16384,30,37.9011873164945,39.1982142450393,597,358,34,4.472136,5.813777,789
364,504,47,12462,44,17.6819116613561,34.8231245008256,372,493,50,9.433981,12.26418,789
359,482,49,16880,44,22.1382022757043,24.2919739831904,372,493,50,9.219544,11.98541,789
369,472,50,14561,44,27.5771644662754,27.5771644662754,372,493,50,5,6.5,789
268,480,51,20880,43,20.8405854044458,28.8847710740452,252,479,53,10.19804,13.25745,789
251,497,52,20809,43,23.4360832905159,25.4803846124818,252,479,53,12.80625,16.64812,789
263,497,55,19776,43,27.4235300426477,33.9418620585259,252,479,53,4.24264,5.515433,789
194,333,60,18046,29,9.90050503762308,14.0719579305795,201,330,61,5,6.5,789
544,336,65,13099,28,22.1382022757043,24.2919739831904,531,347,66,7.071068,9.192389,789
519,354,66,12190,28,18.0601771862847,18.0601771862847,531,347,66,10.77033,14.00143,789
536,359,66,16179,28,16.9,16.9,531,347,66,10.81665,14.06165,789
998,261,27,14783,21,9.1,9.1,991,261,27,5.385165,7.000714,789
671,511,31,19555,46,20.3066491573573,20.3066491573573,683,501,31,6,7.8,789
695,485,31,11914,46,26,26,683,501,31,7.071068,9.192389,789
679,497,32,13801,46,7.35391052434009,12.4128965193463,683,501,31,17.72005,23.03606,789
684,490,32,9158,46,14.3589693223434,17.4979998857012,683,501,31,13.15295,17.09883,789
693,481,32,14624,46,29.0688837074973,30.7408522978788,683,501,31,4.123106,5.360037,789
681,488,33,7269,46,17.0988303693557,26.3129245808975,683,501,31,10.63015,13.81919,789
987,150,33,13062,8,14.7078210486802,14.7078210486802,979,158,33,4.123106,5.360037,789
993,162,33,15304,8,18.9282857121293,18.9282857121293,979,158,33,1,1.3,789
706,471,36,14631,40,18.1069047603394,26.9788806291143,711,458,38,5.656854,7.35391,789
715,448,37,13596,40,14.0014284985497,17.2058129712025,711,458,38,5,6.5,789
717,462,37,13217,40,9.37443331620637,13.7069325525444,711,458,38,19.10497,24.83646,789
1008,48,38,14814,0,0,0,0,0,0,0,0,789
1014,45,38,13660,0,0,0,0,0,0,0,0,789
1035,63,38,17213,0,0,0,0,0,0,0,0,789
683,463,39,11567,40,36.9758028986525,38.3041773178853,711,458,38,2,2.6,789
713,478,39,7119,40,26.1296766149143,27.9778483804599,711,458,38,5,6.5,789
728,479,39,8823,40,35.1240658238764,36.5198576119897,711,458,38,2,2.6,789
1001,24,39,23300,0,0,0,0,0,0,0,0,789
1004,13,39,16113,0,0,0,0,0,0,0,0,789
1006,34,39,24209,0,0,0,0,0,0,0,0,789
1009,81,39,16077,0,0,0,0,0,0,0,0,789
1021,72,39,20693,0,0,0,0,0,0,0,0,789
1026,45,39,23174,0,0,0,0,0,0,0,0,789
1026,60,39,16994,0,0,0,0,0,0,0,0,789
1030,331,39,11368,0,0,0,0,0,0,0,0,789
1032,319,39,6886,27,2.90688837074973,2.90688837074973,1030,320,39,5.385165,7.000714,789
1034,25,39,17981,0,0,0,0,0,0,0,0,789
1040,52,39,21699,0,0,0,0,0,0,0,0,789
1045,22,39,16143,0,0,0,0,0,0,0,0,789
1047,32,39,20871,0,0,0,0,0,0,0,0,789
1056,73,39,15950,0,0,0,0,0,0,0,0,789
1058,37,39,20193,0,0,0,0,0,0,0,0,789
1068,79,39,21942,0,0,0,0,0,0,0,0,789
1072,71,39,16991,0,0,0,0,0,0,0,0,789
988,45,40,13374,0,0,0,0,0,0,0,0,789
1000,7,40,18113,0,0,0,0,0,0,0,0,789
1025,78,40,16296,0,0,0,0,0,0,0,0,789
1034,46,40,19122,0,0,0,0,0,0,0,0,789
1035,86,40,18515,0,0,0,0,0,0,0,0,789
1036,4,40,12151,0,0,0,0,0,0,0,0,789
1036,67,40,14836,0,0,0,0,0,0,0,0,789
1045,72,40,16951,0,0,0,0,0,0,0,0,789
1051,46,40,15014,0,0,0,0,0,0,0,0,789
1062,53,40,19663,0,0,0,0,0,0,0,0,789
1073,33,40,24915,0,0,0,0,0,0,0,0,789
1084,69,40,12236,0,0,0,0,0,0,0,0,789
974,49,41,25521,0,0,0,0,0,0,0,0,789
987,62,41,15401,0,0,0,0,0,0,0,0,789
996,35,41,29374,0,0,0,0,0,0,0,0,789
1008,1,41,27798,0,0,0,0,0,0,0,0,789
1013,5,41,31894,0,0,0,0,0,0,0,0,789
1015,30,41,23945,0,0,0,0,0,0,0,0,789
1018,73,41,18520,0,0,0,0,0,0,0,0,789
1022,89,41,24913,0,0,0,0,0,0,0,0,789
1023,69,41,17980,0,0,0,0,0,0,0,0,789
1023,76,41,16844,0,0,0,0,0,0,0,0,789
1032,26,41,19306,0,0,0,0,0,0,0,0,789
1032,96,41,12958,0,0,0,0,0,0,0,0,789
1037,69,41,14370,0,0,0,0,0,0,0,0,789
1042,85,41,17680,0,0,0,0,0,0,0,0,789
1042,97,41,24176,0,0,0,0,0,0,0,0,789
1043,29,41,13686,0,0,0,0,0,0,0,0,789
1056,89,41,19248,0,0,0,0,0,0,0,0,789
1057,96,41,19258,0,0,0,0,0,0,0,0,789
1061,80,41,15355,0,0,0,0,0,0,0,0,789
1062,65,41,17687,0,0,0,0,0,0,0,0,789
1063,17,41,9792,0,0,0,0,0,0,0,0,789
1067,43,41,16860,0,0,0,0,0,0,0,0,789
1068,81,41,17229,0,0,0,0,0,0,0,0,789
1070,58,41,15556,0,0,0,0,0,0,0,0,789
1071,92,41,10248,0,0,0,0,0,0,0,0,789
1072,23,41,13196,0,0,0,0,0,0,0,0,789
1077,40,41,14184,0,0,0,0,0,0,0,0,789
1077,61,41,27342,0,0,0,0,0,0,0,0,789
1079,50,41,19534,0,0,0,0,0,0,0,0,789
1084,82,41,21425,0,0,0,0,0,0,0,0,789
975,28,42,31983,0,0,0,0,0,0,0,0,789
987,45,42,16540,0,0,0,0,0,0,0,0,789
987,72,42,21875,0,0,0,0,0,0,0,0,789
991,53,42,12774,0,0,0,0,0,0,0,0,789
995,64,42,20217,0,0,0,0,0,0,0,0,789
997,47,42,13167,0,0,0,0,0,0,0,0,789
1000,7,42,17609,0,0,0,0,0,0,0,0,789
1000,83,42,22899,0,0,0,0,0,0,0,0,789
1004,102,42,16745,0,0,0,0,0,0,0,0,789
1007,44,42,10493,0,0,0,0,0,0,0,0,789
1007,68,42,20713,0,0,0,0,0,0,0,0,789
1015,13,42,24948,0,0,0,0,0,0,0,0,789
1022,21,42,23511,0,0,0,0,0,0,0,0,789
1023,6,42,16860,0,0,0,0,0,0,0,0,789
1024,78,42,13130,0,0,0,0,0,0,0,0,789
1025,65,42,18356,0,0,0,0,0,0,0,0,789
1028,30,42,23119,0,0,0,0,0,0,0,0,789
1031,104,42,10850,0,0,0,0,0,0,0,0,789
1035,4,42,12673,0,0,0,0,0,0,0,0,789
1040,9,42,14070,0,0,0,0,0,0,0,0,789
1041,86,42,14507,0,0,0,0,0,0,0,0,789
1056,24,42,10088,0,0,0,0,0,0,0,0,789
1057,65,42,18779,0,0,0,0,0,0,0,0,789
1058,95,42,18994,0,0,0,0,0,0,0,0,789
1062,33,42,26014,0,0,0,0,0,0,0,0,789
1068,83,42,16163,0,0,0,0,0,0,0,0,789
1077,42,42,13452,0,0,0,0,0,0,0,0,789
1080,92,42,10420,0,0,0,0,0,0,0,0,789
1089,55,42,11284,0,0,0,0,0,0,0,0,789
967,52,43,16631,0,0,0,0,0,0,0,0,789
971,67,43,8687,0,0,0,0,0,0,0,0,789
972,77,43,15295,0,0,0,0,0,0,0,0,789
975,40,43,17622,0,0,0,0,0,0,0,0,789
981,102,43,17718,0,0,0,0,0,0,0,0,789
985,38,43,20935,0,0,0,0,0,0,0,0,789
987,23,43,18830,0,0,0,0,0,0,0,0,789
992,105,43,11491,0,0,0,0,0,0,0,0,789
996,78,43,18698,0,0,0,0,0,0,0,0,789
1006,104,43,15532,0,0,0,0,0,0,0,0,789
1008,45,43,8989,0,0,0,0,0,0,0,0,789
1012,54,43,11201,0,0,0,0,0,0,0,0,789
1013,4,43,32436,0,0,0,0,0,0,0,0,789
1017,73,43,16596,0,0,0,0,0,0,0,0,789
1018,43,43,13342,0,0,0,0,0,0,0,0,789
1022,89,43,21631,0,0,0,0,0,0,0,0,789
1030,105,43,11316,0,0,0,0,0,0,0,0,789
1041,27,43,15410,0,0,0,0,0,0,0,0,789
1043,1,43,15059,0,0,0,0,0,0,0,0,789
1049,70,43,12577,0,0,0,0,0,0,0,0,789
1055,108,43,8332,0,0,0,0,0,0,0,0,789
1057,6,43,8348,0,0,0,0,0,0,0,0,789
1058,92,43,17525,0,0,0,0,0,0,0,0,789
1072,14,43,9350,0,0,0,0,0,0,0,0,789
1075,82,43,16230,0,0,0,0,0,0,0,0,789
1079,28,43,17576,0,0,0,0,0,0,0,0,789
1081,74,43,18310,0,0,0,0,0,0,0,0,789
1086,36,43,10254,0,0,0,0,0,0,0,0,789
979,69,44,19164,0,0,0,0,0,0,0,0,789
985,40,44,21362,0,0,0,0,0,0,0,0,789
988,22,44,16878,0,0,0,0,0,0,0,0,789
988,95,44,13614,0,0,0,0,0,0,0,0,789
998,47,44,11623,0,0,0,0,0,0,0,0,789
1004,97,44,19461,0,0,0,0,0,0,0,0,789
1029,107,44,10789,5,26.8001865665148,201.787635894769,1037,126,24,1.414214,1.838478,789
1055,24,44,8024,0,0,0,0,0,0,0,0,789
1058,94,44,14689,0,0,0,0,0,0,0,0,789
1087,58,44,11473,0,0,0,0,0,0,0,0,789
973,76,45,14894,0,0,0,0,0,0,0,0,789
974,58,45,12190,0,0,0,0,0,0,0,0,789
987,23,45,13883,0,0,0,0,0,0,0,0,789
995,77,45,11878,0,0,0,0,0,0,0,0,789
1020,491,45,11533,0,0,0,0,0,0,0,0,789
1039,9,45,12906,0,0,0,0,0,0,0,0,789
1044,1,45,12827,0,0,0,0,0,0,0,0,789
1057,6,45,7944,0,0,0,0,0,0,0,0,789
1072,14,45,9863,0,0,0,0,0,0,0,0,789
1081,74,45,13102,0,0,0,0,0,0,0,0,789
1087,62,45,11491,0,0,0,0,0,0,0,0,789
997,101,46,12933,0,0,0,0,0,0,0,0,789
1005,1,47,8556,0,0,0,0,0,0,0,0,789
798,257,54,9622,20,13,13,808,257,54,5,6.5,789
800,263,54,9195,20,13,13,808,257,54,4.123106,5.360037,789
822,403,54,9695,36,10.4,14.4277510374971,814,403,53,3.605551,4.687217,789
1149,238,59,12983,16,5.36003731330296,20.7057962899281,1150,234,61,11.40175,14.82228,789
900,38,62,9775,2,4.11096095821889,4.11096095821889,897,37,62,6.403124,8.324061,789
806,76,65,19535,3,17.3441632833642,17.3441632833642,809,89,65,5.385165,7.000714,789
817,84,67,14819,3,12.2641754716736,23.4608184000473,809,89,65,8,10.4,789
852,153,67,12794,7,19.3258893715141,19.3258893715141,866,148,67,4,5.2,789
401,892,42,6066,99,4.68721665810319,11.0440028975005,399,889,43,9.848858,12.80352,789
623,643,42,16274,62,25.1071702905764,32.0993769409937,641,650,44,13.34166,17.34416,789
612,651,43,14864,62,37.722407134222,39.025376359492,641,650,44,5,6.5,789
624,628,43,24748,62,36.1437408135904,37.5015999658681,641,650,44,10,13,789
627,617,43,16319,62,46.6009656552308,47.6618295914036,641,650,44,7.615773,9.900505,789
614,643,44,25268,62,36.2604467705515,36.2604467705515,641,650,44,5,6.5,789
614,613,47,9409,0,0,0,0,0,0,0,0,789
472,711,49,12871,75,9.46414285606467,9.46414285606467,479,709,49,3,3.9,789
478,705,49,19513,75,5.36003731330296,5.36003731330296,479,709,49,5,6.5,789
479,716,49,14935,75,9.1,9.1,479,709,49,3.162278,4.110961,789
120,656,52,8842,66,14.0616499743096,24.4485173374583,129,650,54,8,10.4,789
130,664,53,18506,66,18.2463695019037,20.8069699860407,129,650,54,5,6.5,789
138,653,54,20124,66,12.3328828746567,12.3328828746567,129,650,54,6,7.8,789
584,592,54,9369,60,28.392428568194,34.7293823728554,590,613,56,7.211102,9.374434,789
596,595,54,8205,60,24.6657657493134,31.7553145158413,590,613,56,4.472136,5.813777,789
579,600,55,16296,60,22.1382022757043,24.2919739831904,590,613,56,9.219544,11.98541,789
467,893,57,7964,98,12.8035151423349,16.2459225653701,476,889,58,6.708204,8.720665,789
476,888,59,12458,98,1.3,10.0841459727634,476,889,58,13.0384,16.94993,789
356,650,67,7375,69,14.8222805262888,14.8222805262888,363,659,67,4.472136,5.813777,789
368,881,67,13831,96,16.2889533119842,25.7939915484207,374,892,69,9.219544,11.98541,789
368,890,67,12933,96,8.22192191643779,21.6240606732408,374,892,69,11.40175,14.82228,789
373,898,67,7563,96,7.90759128938769,21.5065106421288,374,892,69,6.082763,7.907591,789
357,897,68,7468,96,23.0360586906702,25.1129448691307,374,892,69,2,2.6,789
377,896,68,6716,96,6.5,11.9268604418766,374,892,69,2,2.6,789
369,801,69,17334,84,14.5344418537486,14.5344418537486,379,806,69,2.828427,3.676955,789
387,722,71,10262,76,13.0648383074572,13.0648383074572,377,723,71,10.77033,14.00143,789
577,983,71,11495,108,11.6275534829989,11.6275534829989,569,979,71,3.162278,4.110961,789
367,724,72,14043,76,13.0648383074572,16.4526593595078,377,723,71,9.219544,11.98541,789
837,617,25,21090,61,4.11096095821889,10.8120303366204,840,616,26,10.04988,13.06484,789
843,608,25,17392,61,11.1072048689128,14.9455679049008,840,616,26,7.81025,10.15333,789
847,611,25,19216,61,11.1830228471554,15.0019998666844,840,616,26,6.708204,8.720665,789
864,795,25,24303,83,12.3328828746567,32.4360910098612,861,786,28,14.31782,18.61317,789
841,606,26,16300,61,13.0648383074572,13.0648383074572,840,616,26,5,6.5,789
841,628,26,21043,61,15.65407295243,15.65407295243,840,616,26,4.472136,5.813777,789
858,799,26,22835,83,17.3441632833642,26.473005118422,861,786,28,9.486833,12.33288,789
838,784,27,21481,83,30.0128305895995,31.6349490279343,861,786,28,4,5.2,789
840,794,27,19584,83,29.2138665705175,30.8779856855981,861,786,28,6,7.8,789
862,775,27,19760,83,14.3589693223434,17.4979998857012,861,786,28,13.60147,17.68191,789
865,802,27,21959,83,21.4401492532118,23.657556932194,861,786,28,10,13,789
837,616,28,14240,61,3.9,20.3767023828685,840,616,26,10,13,789
855,791,28,23133,83,10.1533245786787,10.1533245786787,861,786,28,15.81139,20.5548,789
861,774,28,21253,83,15.6,15.6,861,786,28,13,16.9,789
869,767,28,14975,83,26.8001865665148,26.8001865665148,861,786,28,5,6.5,789
871,795,28,19980,83,17.4897112611958,17.4897112611958,861,786,28,7.615773,9.900505,789
878,770,28,17362,83,30.3488055778148,30.3488055778148,861,786,28,6.324555,8.221922,789
1123,675,30,18759,72,17.4897112611958,17.4897112611958,1114,685,30,5.830952,7.580237,789
1185,652,35,18361,70,1.3,1.3,1186,652,35,6,7.8,789
1227,926,37,13893,102,6.5,6.5,1231,923,37,3.162278,4.110961,789
1237,926,37,12313,102,8.72066511224918,8.72066511224918,1231,923,37,4.123106,5.360037,789
659,649,41,65535,62,23.4360832905159,38.0690162730796,641,650,44,5.830952,7.580237,789
667,662,41,24390,62,37.2263347645185,47.810040786429,641,650,44,1,1.3,789
692,630,41,51996,59,11.1830228471554,41.533841623428,687,623,45,16.15549,21.00214,789
1117,629,41,17968,63,11.9854077944808,11.9854077944808,1126,627,41,13.15295,17.09883,789
1135,641,41,18031,63,21.6363120702212,21.6363120702212,1126,627,41,7.81025,10.15333,789
645,648,42,37503,62,5.81377674149945,20.8278659492517,641,650,44,18.02776,23.43608,789
651,641,42,33765,62,17.4897112611958,26.568590478232,641,650,44,11,14.3,789
658,605,42,33970,59,44.3717252312776,53.5616467259923,687,623,45,9.848858,12.80352,789
667,599,42,18472,59,40.6132983147146,50.4919795611145,687,623,45,19.84943,25.80426,789
667,627,42,25426,59,26.5149014706825,40.0379819671272,687,623,45,7.071068,9.192389,789
669,655,42,26902,59,47.7296553517831,56.374817072874,687,623,45,2,2.6,789
679,647,42,26503,59,32.8876876657512,44.5151659549866,687,623,45,12.64911,16.44384,789
680,644,42,24960,59,28.7767267075323,41.5704221773126,687,623,45,14.76482,19.19427,789
681,654,42,20327,59,41.0478988500021,50.8422068757838,687,623,45,13,16.9,789
690,637,42,18845,59,18.6131673822593,35.305098781904,687,623,45,11.31371,14.70782,789
690,650,42,18989,59,35.3160020387359,46.3381052698532,687,623,45,4,5.2,789
700,618,42,32344,59,18.1069047603394,35.0408333234243,687,623,45,23.85372,31.00984,789
701,623,42,51379,59,18.2,35.0890296246562,687,623,45,22,28.6,789
638,602,43,18044,59,69.3035352633616,72.1316851321248,687,623,45,3.605551,4.687217,789
639,633,43,20984,62,22.2524155992108,24.3961062466944,641,650,44,19.64688,25.54095,789
647,634,43,30356,62,22.2144097378256,24.3614449489352,641,650,44,12.52996,16.28895,789
648,600,43,21179,59,58.8600033978932,62.1651027506591,687,623,45,8.246211,10.72007,789
649,639,43,31672,62,17.6819116613561,20.3137884206762,641,650,44,13,16.9,789
671,680,43,21191,62,55.1543289325507,56.0535458289661,641,650,44,3.162278,4.110961,789
674,667,43,32537,59,59.6443626841632,62.9082665474101,687,623,45,6,7.8,789
676,603,43,20495,59,29.6730517473347,35.7839349429321,687,623,45,22.80351,29.64456,789
680,639,43,30726,59,22.7035239555449,30.2564042807469,687,623,45,16.55295,21.51883,789
681,610,43,40515,59,18.6131673822593,27.3212371608608,687,623,45,24.04163,31.25412,789
697,612,43,29178,59,19.3258893715141,27.8116881903994,687,623,45,24.04163,31.25412,789
701,653,43,31788,68,21.6363120702212,29.4640458864698,715,662,45,6.708204,8.720665,789
707,625,43,32541,59,26.1296766149143,32.9053187190156,687,623,45,19.0263,24.73419,789
709,641,43,27781,59,36.9529430492349,42.0180913417066,687,623,45,3,3.9,789
710,649,43,27022,68,18.1069047603394,26.9788806291143,715,662,45,4.472136,5.813777,789
719,613,43,53476,59,43.5839419970246,47.9537276966035,687,623,45,7.071068,9.192389,789
641,653,44,21826,62,3.9,3.9,641,650,44,22.80351,29.64456,789
645,622,44,25237,62,36.7695526217005,36.7695526217005,641,650,44,10.63015,13.81919,789
647,675,44,23773,62,33.4228963436743,33.4228963436743,641,650,44,7.81025,10.15333,789
663,677,44,17894,62,45.2765943948968,45.2765943948968,641,650,44,7.81025,10.15333,789
672,681,44,21591,62,56.9928065636357,56.9928065636357,641,650,44,2.828427,3.676955,789
675,582,44,17933,59,55.5360243445639,56.4291591289468,687,623,45,4,5.2,789
688,661,44,23603,59,49.4171023027453,50.4187465135737,687,623,45,6.708204,8.720665,789
690,607,44,24854,59,21.1624667749296,23.4061957609518,687,623,45,24.75884,32.18649,789
703,671,44,34029,68,19.5,21.9146070008111,715,662,45,6,7.8,789
704,604,44,20508,59,33.1436268383531,34.6193587462275,687,623,45,14.76482,19.19427,789
718,662,44,26091,68,3.9,10.7335921293852,715,662,45,11.18034,14.53444,789
631,618,45,31616,62,43.5839419970246,44.7164399298513,641,650,44,11.7047,15.21611,789
638,600,45,25986,59,70.3683167341667,70.3683167341667,687,623,45,4.472136,5.813777,789
639,631,45,19424,62,24.8364651269056,26.7740546051583,641,650,44,19.23538,25.006,789
645,585,45,15426,59,73.6309717442327,73.6309717442327,687,623,45,3,3.9,789
662,573,45,19507,59,72.6722092687432,72.6722092687432,687,623,45,1,1.3,789
665,573,45,32164,59,71.0138014754879,71.0138014754879,687,623,45,2,2.6,789
705,605,45,19272,59,33.0925973595304,33.0925973595304,687,623,45,15,19.5,789
709,678,45,17554,68,22.2144097378256,22.2144097378256,715,662,45,5,6.5,789
1234,661,45,16843,0,0,0,0,0,0,0,0,789
639,594,46,18493,59,72.9043894426118,73.5870233125379,687,623,45,2.236068,2.906888,789
671,693,46,16242,62,68.1601789903753,71.0338651630333,641,650,44,2,2.6,789
673,692,46,19391,62,68.6419696687093,71.4962936102285,641,650,44,2.236068,2.906888,789
686,581,46,14345,59,54.61547399776,55.5234184826547,687,623,45,5,6.5,789
697,611,46,15754,59,20.3066491573573,22.635370551418,687,623,45,23.76973,30.90065,789
702,651,46,13489,68,22.1382022757043,24.2919739831904,715,662,45,6,7.8,789
709,678,47,17690,68,22.2144097378256,29.8911358098015,715,662,45,5,6.5,789
718,641,47,21141,59,46.6009656552308,50.7114385518691,687,623,45,3,3.9,789
720,652,47,23299,68,14.5344418537486,24.7234706301522,715,662,45,8,10.4,789
730,628,48,25094,59,56.2766381369747,63.7735054705322,687,623,45,8,10.4,789
740,640,48,31438,59,72.3575842603939,78.3301985188344,687,623,45,1,1.3,789
782,821,65,13946,86,15.8685223004538,18.7565988388087,772,814,66,8.602325,11.18302,789
397,527,17,21474,67,18.6131673822593,27.3212371608608,383,530,19,20.51828,26.67377,790
404,516,17,24198,67,32.8105166067223,38.4256424799898,383,530,19,8.062258,10.48094,790
379,515,18,20431,67,20.181427105138,22.5230992538771,383,530,19,22.82542,29.67305,790
382,522,18,30346,67,10.4809350727881,14.4862003299692,383,530,19,29.73214,38.65178,790
356,527,19,10012,67,35.3160020387359,35.3160020387359,383,530,19,10.44031,13.5724,790
363,507,19,17856,67,39.6233517007332,39.6233517007332,383,530,19,8.944272,11.62755,790
375,502,19,17755,67,37.8565714242587,37.8565714242587,383,530,19,9.899495,12.86934,790
380,517,19,20254,67,17.3441632833642,17.3441632833642,383,530,19,25.05993,32.57791,790
412,522,19,14596,67,39.1081832868774,39.1081832868774,383,530,19,8.062258,10.48094,790
386,498,20,14492,67,41.7824125679693,42.9624254436362,383,530,19,8.062258,10.48094,790
388,515,20,13770,67,20.5548047910945,22.8582589013249,383,530,19,20.51828,26.67377,790
355,518,21,6914,67,39.6020201504923,44.3657525575753,383,530,19,8,10.4,790
367,502,21,12602,67,41.9237402911525,46.4499730893356,383,530,19,6.082763,7.907591,790
372,524,22,9769,67,16.2889533119842,34.1369301490336,383,530,19,25.31798,32.91337,790
605,491,24,8580,65,19.5,21.9146070008111,620,491,25,7.28011,9.464143,790
609,508,25,14099,65,26.3229937507116,26.3229937507116,620,491,25,2,2.6,790
627,483,25,11685,65,13.819189556555,13.819189556555,620,491,25,8.062258,10.48094,790
619,510,26,7295,65,24.7341868675726,26.6792053854683,620,491,25,2,2.6,790
624,497,26,9132,65,9.37443331620637,13.7069325525444,620,491,25,12.52996,16.28895,790
248,157,27,10102,16,25.0059992801727,32.0203060572506,231,148,29,2.236068,2.906888,790
225,141,29,19228,16,11.9854077944808,11.9854077944808,231,148,29,14.4222,18.74887,790
247,135,29,11710,16,26.8001865665148,26.8001865665148,231,148,29,5.830952,7.580237,790
216,152,30,7701,16,20.181427105138,22.5230992538771,231,148,29,8,10.4,790
217,162,30,9008,16,25.7386868351903,27.6130403976092,231,148,29,4.472136,5.813777,790
239,143,30,10492,16,12.2641754716736,15.8243483278143,231,148,29,13.60147,17.68191,790
246,136,30,10212,16,24.9721845259881,26.9,231,148,29,7.071068,9.192389,790
603,244,31,17352,33,6.62872536767062,6.62872536767062,604,239,31,5,6.5,790
610,240,31,15141,33,7.90759128938769,7.90759128938769,604,239,31,4,5.2,790
252,91,35,6890,13,8.3240615086627,8.3240615086627,256,86,35,5,6.5,790
267,88,35,8559,13,14.5344418537486,14.5344418537486,256,86,35,2,2.6,790
166,410,36,10052,53,19.5,21.9146070008111,175,398,37,3.162278,4.110961,790
268,38,37,12843,2,23.0360586906702,25.1129448691307,285,33,38,4.123106,5.360037,790
272,39,37,10837,2,18.6131673822593,21.1293634546808,285,33,38,5.656854,7.35391,790
283,39,37,17923,2,8.22192191643779,12.9460418661458,285,33,38,14.4222,18.74887,790
624,525,37,12476,72,21.0021427478246,36.6208956744643,639,531,40,8.544003,11.1072,790
607,527,38,13710,72,41.9237402911525,46.4499730893356,639,531,40,4.472136,5.813777,790
268,38,39,11680,2,23.0360586906702,25.1129448691307,285,33,38,4.123106,5.360037,790
272,38,39,12785,2,18.1069047603394,20.6847770111258,285,33,38,6.403124,8.324061,790
278,46,39,12434,2,19.1942699783034,21.6430127292852,285,33,38,5.830952,7.580237,790
484,19,41,9145,0,0,0,0,0,0,0,0,790
492,1,41,7400,0,0,0,0,0,0,0,0,790
492,1,43,9947,0,0,0,0,0,0,0,0,790
492,21,43,9604,0,0,0,0,0,0,0,0,790
80,270,44,26566,36,17.6819116613561,20.3137884206762,67,266,45,4.123106,5.360037,790
108,346,48,9399,43,9.37443331620637,9.37443331620637,114,350,48,8,10.4,790
115,364,48,11488,43,18.2463695019037,18.2463695019037,114,350,48,4,5.2,790
125,356,48,22977,43,16.2889533119842,16.2889533119842,114,350,48,4.123106,5.360037,790
119,448,51,9788,58,22.7035239555449,22.7035239555449,135,441,51,8.062258,10.48094,790
126,456,51,16462,58,22.7407123898967,22.7407123898967,135,441,51,5,6.5,790
132,440,51,16891,58,4.11096095821889,4.11096095821889,135,441,51,20.22375,26.29087,790
140,451,51,9373,58,14.5344418537486,14.5344418537486,135,441,51,14.86607,19.32589,790
317,368,51,16579,48,4.68721665810319,4.68721665810319,319,365,51,6.403124,8.324061,790
140,426,52,6353,58,20.5548047910945,22.8582589013249,135,441,51,9.433981,12.26418,790
148,448,52,11081,58,19.1942699783034,21.6430127292852,135,441,51,12,15.6,790
318,360,52,14650,48,6.62872536767062,11.9974997395291,319,365,51,5.830952,7.580237,790
137,458,54,8862,58,22.2524155992108,37.3519745127349,135,441,51,11,14.3,790
44,73,59,13643,9,9.37443331620637,13.7069325525444,40,67,60,4.123106,5.360037,790
1,453,60,8762,0,0,0,0,0,0,0,0,790
178,527,64,11713,70,14.5344418537486,24.7234706301522,176,516,66,7.615773,9.900505,790
21,94,65,9899,0,0,0,0,0,0,0,0,790
171,510,65,10081,70,10.1533245786787,14.2509648796143,176,516,66,14.03567,18.24637,790
185,520,65,18690,70,12.8035151423349,16.2459225653701,176,516,66,6.403124,8.324061,790
11,97,66,15249,0,0,0,0,0,0,0,0,790
75,187,66,8082,21,16.9499262535269,43.4430661901298,86,194,70,27.16615,35.316,790
167,527,66,8700,70,18.4764715246175,18.4764715246175,176,516,66,5,6.5,790
179,509,66,15828,70,9.90050503762308,9.90050503762308,176,516,66,10.29563,13.38432,790
71,188,67,9009,21,21.0021427478246,36.6208956744643,86,194,70,23.08679,30.01283,790
97,209,67,25109,21,24.1813978090598,38.5323240928963,86,194,70,24.75884,32.18649,790
105,190,67,11026,21,25.2414341906319,39.2062495018332,86,194,70,17.26268,22.44148,790
16,90,68,8487,0,0,0,0,0,0,0,0,790
57,171,68,16036,21,48.1175643606365,52.1085405667823,86,194,70,6.324555,8.221922,790
58,188,68,8884,21,37.2263347645185,42.2587269093616,86,194,70,10.19804,13.25745,790
68,165,68,21160,21,44.3717252312776,48.670833154981,86,194,70,8.944272,11.62755,790
70,189,68,8607,21,21.7919709985123,29.5785395176976,86,194,70,22.02271,28.62953,790
88,166,68,18616,21,36.4927390038073,41.6139399720815,86,194,70,11.18034,14.53444,790
102,170,68,15634,21,37.4977332648255,42.497999952939,86,194,70,7.615773,9.900505,790
102,181,68,19449,21,26.8001865665148,33.4402452144119,86,194,70,16.27882,21.16247,790
113,182,68,20803,21,38.4105454270048,43.3055423704634,86,194,70,8.602325,11.18302,790
74,221,69,11094,21,38.4105454270048,39.6909309540605,86,194,70,7.211102,9.374434,790
78,158,69,13836,21,47.941631177923,48.9734622014821,86,194,70,6,7.8,790
85,185,69,10034,21,11.7720006795786,15.4460350899511,86,194,70,29.54657,38.41055,790
109,205,69,8371,21,33.1436268383531,34.6193587462275,86,194,70,16.15549,21.00214,790
112,194,69,9919,21,33.8,35.2482623685197,86,194,70,12,15.6,790
63,202,70,14242,21,31.6570687209034,31.6570687209034,86,194,70,12.52996,16.28895,790
88,224,70,7385,21,39.0865705837696,39.0865705837696,86,194,70,7.81025,10.15333,790
100,230,70,9039,21,50.2143405811527,50.2143405811527,86,194,70,4.123106,5.360037,790
116,202,70,11610,21,40.3628542102761,40.3628542102761,86,194,70,10.63015,13.81919,790
1167,277,15,25737,31,11.9854077944808,51.4164370605354,1161,270,20,29.61419,38.49844,790
1137,282,16,20851,31,34.8826604489967,53.0735338940229,1161,270,20,21.63331,28.1233,790
1157,279,16,26694,31,12.8035151423349,41.9991666583993,1161,270,20,31,40.3,790
1165,300,16,30028,31,39.345139471096,56.1073970167927,1161,270,20,18,23.4,790
1168,276,16,30212,31,11.9854077944808,41.7570353353779,1161,270,20,28.86174,37.52026,790
1178,274,16,17836,31,22.7035239555449,45.994021350606,1161,270,20,31.06445,40.38379,790
1179,255,16,26548,31,30.459973736036,50.277330875853,1161,270,20,18.78829,24.42478,790
1128,243,17,40975,31,55.4294145738524,63.0271370125599,1161,270,20,11.7047,15.21611,790
1134,243,17,54496,31,49.6388960392956,58.0001724135368,1161,270,20,17.46425,22.70352,790
1141,290,17,15451,31,36.7695526217005,47.4552420708187,1161,270,20,17.80449,23.14584,790
1167,277,17,29782,31,11.9854077944808,32.305572274764,1161,270,20,29.61419,38.49844,790
1168,244,17,30727,31,35.0035712463743,46.100433837438,1161,270,20,6,7.8,790
1174,263,17,28393,31,19.1942699783034,35.6148845288034,1161,270,20,19.84943,25.80426,790
1175,234,17,15931,31,50.2143405811527,58.4934184331879,1161,270,20,9.848858,12.80352,790
1181,244,17,27698,31,42.6431706138275,52.1386612793232,1161,270,20,16.49242,21.44015,790
1181,293,17,18931,31,39.6233517007332,49.6991951645095,1161,270,20,22.36068,29.06888,790
757,385,18,15872,49,12.8035151423349,16.2459225653701,766,381,19,6.324555,8.221922,790
760,371,18,31874,49,15.1604749265978,18.1614977355944,766,381,19,9,11.7,790
768,396,18,22963,49,19.672569735548,22.068303061178,766,381,19,10,13,790
769,368,18,31165,49,17.3441632833642,20.0204895045051,766,381,19,10.63015,13.81919,790
1119,266,18,15618,31,54.8470600852954,58.3797910239494,1161,270,20,8.246211,10.72007,790
1133,269,18,32025,31,36.4232068879169,41.5529782326129,1161,270,20,22,28.6,790
1144,265,18,17594,31,23.0360586906702,30.5067205710479,1161,270,20,19.23538,25.006,790
1145,247,18,28575,31,36.4232068879169,41.5529782326129,1161,270,20,7.071068,9.192389,790
1146,279,18,29216,31,22.7407123898967,30.2843193748844,1161,270,20,29.68164,38.58614,790
1147,309,18,34046,31,53.8677083232617,57.460682209664,1161,270,20,6.082763,7.907591,790
1154,297,18,15000,31,36.2604467705515,41.4103851708723,1161,270,20,19.69772,25.60703,790
1167,230,18,22325,31,52.5817458820074,56.2569106865992,1161,270,20,8.062258,10.48094,790
1171,255,18,22173,31,23.4360832905159,30.8099010060078,1161,270,20,12.04159,15.65407,790
1171,293,18,28330,31,32.6038341303596,38.2493137193336,1161,270,20,25.31798,32.91337,790
1174,319,18,34909,31,65.9037176493102,68.8716196992636,1161,270,20,1.414214,1.838478,790
1181,283,18,24491,31,31.0098371488791,36.9,1161,270,20,28.63564,37.22634,790
1186,277,18,14747,31,33.7499629629426,39.2308552035257,1161,270,20,24,31.2,790
1186,306,18,28733,31,56.9779782021089,60.386173914233,1161,270,20,9,11.7,790
1189,268,18,19841,31,36.4927390038073,41.6139399720815,1161,270,20,21.58703,28.06314,790
1204,286,18,21840,31,59.6443626841632,62.9082665474101,1161,270,20,8.602325,11.18302,790
761,376,19,31199,49,9.19238815542512,9.19238815542512,766,381,19,10,13,790
776,373,19,17024,49,16.6481230173254,16.6481230173254,766,381,19,5,6.5,790
1118,291,19,27880,31,62.2101277928281,63.0087295539277,1161,270,20,2.236068,2.906888,790
1131,290,19,32710,31,46.8721665810319,47.927027865287,1161,270,20,11.6619,15.16047,790
1140,228,19,19061,31,61.0446557857443,61.8583058287244,1161,270,20,8,10.4,790
1142,290,19,15969,31,35.8620969827477,37.2302296527969,1161,270,20,18.43909,23.97082,790
1143,311,19,32761,31,58.2103942608191,59.0631018487854,1161,270,20,3,3.9,790
1147,233,19,18761,31,51.4281051566165,52.3913160743267,1161,270,20,5,6.5,790
1153,259,19,14349,31,17.6819116613561,20.3137884206762,1161,270,20,11,14.3,790
1154,307,19,27731,31,48.9532429977831,49.9641871744152,1161,270,20,10.19804,13.25745,790
1161,307,19,36270,31,48.1,49.1285049640227,1161,270,20,11.40175,14.82228,790
1166,282,19,24950,31,16.9,19.6369549574266,1161,270,20,34.36568,44.67538,790
1203,276,19,21053,31,55.1543289325507,56.0535458289661,1161,270,20,7,9.1,790
1206,268,19,24811,31,58.5577492736871,59.405471128508,1161,270,20,5.385165,7.000714,790
771,386,20,17362,49,9.19238815542512,13.5830777072061,766,381,19,12,15.6,790
774,372,20,15472,49,15.65407295243,18.5755215269989,766,381,19,7,9.1,790
779,382,20,12561,49,16.9499262535269,19.6799390242958,766,381,19,3.162278,4.110961,790
1124,234,20,25221,31,67.1107293955296,67.1107293955296,1161,270,20,6.403124,8.324061,790
1128,254,20,34766,31,47.6765141343199,47.6765141343198,1161,270,20,12.52996,16.28895,790
1129,285,20,26700,31,45.943552322388,45.943552322388,1161,270,20,14.14214,18.38478,790
1137,232,20,14623,31,58.427733141035,58.427733141035,1161,270,20,9.848858,12.80352,790
1144,265,20,16185,31,23.0360586906702,23.0360586906702,1161,270,20,19.23538,25.006,790
1154,296,20,13171,31,35.0035712463743,35.0035712463743,1161,270,20,20.61553,26.80019,790
1164,314,20,35497,31,57.3328003851199,57.3328003851199,1161,270,20,4,5.2,790
1172,312,20,26054,31,56.4415626998403,56.4415626998403,1161,270,20,7.28011,9.464143,790
1174,319,20,36506,31,65.9037176493102,65.9037176493102,1161,270,20,1.414214,1.838478,790
1175,232,20,13191,31,52.6459875014231,52.6459875014231,1161,270,20,8.062258,10.48094,790
1189,268,20,18129,31,36.4927390038073,36.4927390038073,1161,270,20,21.58703,28.06314,790
1192,294,20,11848,31,50.9659690381729,50.9659690381729,1161,270,20,13.45362,17.48971,790
1194,255,20,22973,31,47.1238792970188,47.1238792970188,1161,270,20,13.89244,18.06018,790
1194,289,20,17875,31,49.5025251881154,49.5025251881154,1161,270,20,14.31782,18.61317,790
